ply
format ascii 1.0
comment File exported by Rhinoceros Version 7.0
element vertex 300
property float x
property float y
property float z
property uchar red
property uchar green
property uchar blue
end_header
5.79680003212594 -6.76997602775826 4.57867807575123 200 0 0
2.70730683892891 -6.76997602775826 8.37797965788817 200 0 0
4.9057790771729 1.5546044693933 14.6393355512934 200 0 0
-14.4377492986306 3.56150106702516 3.73184875531787 200 0 0
-9.0741872568105 16.1115361800572 -1.95933217953046 200 0 0
6.07354120162952 1.5546044693933 5.48723626868387 200 0 0
-11.5440345285334 10.8917672589599 -7.0366339254777 200 0 0
-15.2954224716845 6.16098085971104 0.0763443530871243 200 0 0
6.98227239139017 -4.9663240120443 4.37097342668667 200 0 0
-5.35390525234013 2.93637465010509 11.2302378704037 200 0 0
-3.45337194303571 2.09086310791403 -11.1198338405391 200 0 0
-1.85918678941374 6.56460410752371 11.6235714215712 200 0 0
-12.1995442354891 13.4072143800032 -2.69368878626091 200 0 0
1.49768633592355 9.31351322164132 10.074084725799 200 0 0
-8.63507979549325 16.4132482349087 1.50654272613888 200 0 0
3.74017705862062 11.5025014442034 7.36475898569491 200 0 0
-1.23776001474855 -6.76997602775826 12.2416451936552 200 0 0
-8.98389796920978 1.38610511792204 11.7779028073969 200 0 0
1.75678023880246 -6.76997602775826 14.7998232609121 200 0 0
-8.98389796920978 -0.775086224399473 12.7192218506321 200 0 0
-5.50744589309936 3.10865411512467 -11.248803690691 200 0 0
4.7119633336489 -4.65702828664221 0 200 0 0
1.78062622816128 15.7418030615282 -3.69191955054737 200 0 0
-13.1724054528478 10.9543105950952 4.48984781979789 200 0 0
-0.743615078204494 -1.6490211282921 17.0159742810037 200 0 0
-8.98389796920979 -4.75829546023718 9.42916523781364 200 0 0
-10.2685551595874 13.0300496796681 -6.51825982152083 200 0 0
-11.8850776516976 14.2065464325036 0.000986284401871222 200 0 0
-13.8949332400387 9.18236002371395 -4.51741860900797 200 0 0
-3.16820690936896 3.45791304679714 11.4946694005362 200 0 0
6.98227239139017 -5.37731836379282 14.9771599766116 200 0 0
-7.56326736501019 9.96443050390935 -10.2848038727849 200 0 0
5.32679444129287 0.0855442278159151 17.0159742810037 200 0 0
-8.44960610941561 -0.677691813856221 17.0159742810037 200 0 0
-4.24209216844315 17.626012247066 -0.921364316956604 200 0 0
2.43330027565313 6.98130875608929 10.0783196942512 200 0 0
-5.83701395834286 14.5259978304398 -7.68183672033847 200 0 0
-6.83296112551373 -5.37142684125581 0 200 0 0
-1.50923938477393 6.94839446885463 -11.5399441783049 200 0 0
-0.771987241371674 0.0862568011288527 -9.8304183058801 200 0 0
-2.178949042599 -5.54603846389363 -2.23126012175769 200 0 0
6.82777580716766 -3.01246836971063 0 200 0 0
-5.48919561713052 -6.76997602775826 8.81432995992187 200 0 0
-5.17814313530959 -3.08094198387959 17.0159742810037 200 0 0
-8.2022295640243 14.0722317472835 7.08073588606089 200 0 0
-2.52076203633645 16.0073227613242 5.96536053259308 200 0 0
-4.65253182833047 7.36518387902328 -11.6191852849974 200 0 0
-13.1542848388043 5.69465089813741 6.76621383878129 200 0 0
6.98227239139017 -0.167763699894437 6.80830615912111 200 0 0
5.18962680406753 3.58022593910492 7.53025370009836 200 0 0
7.86845721038492 3.11286740894564 -0.607874693240701 200 0 0
2.9415173531108 -6.76997602775826 1.80795921235451 200 0 0
-15.0200752884711 3.49697671904137 -0.763364156807056 200 0 0
-8.11666817090314 14.0117243903331 -7.20489825476205 200 0 0
7.10781494261805 10.5317717644726 1.94427774985394 200 0 0
-13.9467816917956 0.448494429962918 0.0594711827965154 200 0 0
-12.7537930298719 -1.32065283878859 0.960552781691436 200 0 0
-1.63154315378352 16.5951162056975 -4.55921602828222 200 0 0
-14.8687002108824 9.07027432115159 0.0624151389348538 200 0 0
4.72347530161609 4.86640843349183 -8.30614913624696 200 0 0
-14.4852180032611 5.53511451207519 -4.27915845105383 200 0 0
-1.01059815564118 -6.76997602775826 8.06264080271474 200 0 0
6.04578298388838 -0.668763176921963 -1.75407791290822 200 0 0
1.4508443457519 -5.11437558303302 0 200 0 0
-9.85714124212702 12.1199738399939 7.74386806059796 200 0 0
-1.34722940294096 -6.76997602775826 3.32117999780526 200 0 0
-8.98389796920979 -5.83740377047244 2.88651171881908 200 0 0
-2.63262979842044 -6.09894277029746 0 200 0 0
3.00019300196092 1.76905124202619 -8.85208086445213 200 0 0
-8.98389796920979 -2.96682658701996 9.78749061431477 200 0 0
3.05479100020669 13.1402511191513 6.54087262616044 200 0 0
-5.4553934498405 11.5792293607154 10.1314462037244 200 0 0
-2.61927394059285 11.4993111065225 -10.3142927662574 200 0 0
5.2472700771289 1.5546044693933 10.6816705883544 200 0 0
-2.45378729924117 -0.290653740461162 17.0159742810037 200 0 0
-5.46990157707528 -5.48018073566062 -2.14240875914681 200 0 0
1.93532870149002 -3.45664934435779 -4.52065981401874 200 0 0
6.74134085267484 1.5546044693933 14.7056947661657 200 0 0
-5.45507881476884 -6.76997602775826 16.2184426386144 200 0 0
-11.8778790724948 6.3944230786625 8.27846591000624 200 0 0
6.98227239139017 -4.20967020330272 9.71980513305915 200 0 0
6.98227239139017 -4.90953505133844 7.06128101346802 200 0 0
-1.56236742118664 1.5546044693933 10.8294542287516 200 0 0
-8.98389796920979 1.29131731522143 14.3605468704515 200 0 0
-0.769347500825014 11.8382826241206 9.78123298986364 200 0 0
-11.9573653113518 7.44627730886187 -8.06846248551809 200 0 0
7.11079149365385 2.95384979171603 4.0198480032241 200 0 0
2.43961102919384 -6.76997602775826 16.9938004554224 200 0 0
-12.7627800862029 8.73571949588749 6.73000116122075 200 0 0
-7.95247232136269 2.48550347422337 -10.345300278302 200 0 0
6.98227239139017 -0.251155315141755 2.43105830264727 200 0 0
4.1589619833686 -6.76997602775826 3.28364584818472 200 0 0
-8.83372098255982 -6.76997602775826 10.1211622275615 200 0 0
2.93040682132235 1.5546044693933 11.3762975779978 200 0 0
5.13406161638885 12.8444467459199 3.90285193161118 200 0 0
-2.31621382369687 13.541015886208 -8.8765532727568 200 0 0
6.89818402534498 3.90048316494557 -5.03631690854284 200 0 0
3.51458138584231 4.75921623417899 9.34151578775242 200 0 0
-11.0800886054309 1.23487561976146 7.71112051367337 200 0 0
-7.20968847158321 -6.76997602775826 5.78631594255037 200 0 0
-8.13259156213279 6.31498899482069 10.8192391984633 200 0 0
6.98227239139017 -1.31417945978147 16.3089414657039 200 0 0
-9.06585442119655 15.7173366691258 3.43647292242363 200 0 0
7.48395366456442 8.69844979909164 -3.02871068048512 200 0 0
-5.07745025609038 1.5546044693933 13.1456662143391 200 0 0
-7.05679323023553 -6.76997602775826 0.962972932750011 200 0 0
-4.8416732730728 15.8292858547086 -6.20269943470534 200 0 0
-10.0044856358157 8.08987207537287 -9.58121004618071 200 0 0
1.46986719934526 -6.76997602775826 0.854758958863208 200 0 0
4.54640102811105 14.1324037031104 -2.36364506772068 200 0 0
-1.23062857287039 -3.69344437897714 17.0159742810037 200 0 0
-14.6178071888425 3.59232897094113 -3.18011939163336 200 0 0
6.98227239139017 -3.63985782640095 16.9737528940354 200 0 0
6.98227239139017 -5.36785240444345 11.1395389526516 200 0 0
-8.98389796920979 -6.57285867876111 13.1121397579131 200 0 0
-0.379280312502749 14.3841116945754 -7.53365009697378 200 0 0
-7.85415095019011 -6.73888565557649 17.0159742810037 200 0 0
1.55687928231865 1.5546044693933 15.8298858561141 200 0 0
-9.15084161487847 1.14551488848692 -9.16517513306236 200 0 0
-1.67673896893243 -3.52304863684654 -6.75788906904756 200 0 0
-6.53099252330232 1.5546044693933 10.5126691660901 200 0 0
-0.0447328447636139 -4.01789443315035 -5.22903091518848 200 0 0
6.98227239139017 -1.74876487544839 8.53446365533117 200 0 0
-12.0462032062125 -0.548928664829619 -4.90396832744979 200 0 0
-13.4162025347921 8.03983449082815 -6.02002532572645 200 0 0
0.292919519904491 15.6119485834491 -5.456304951231 200 0 0
1.86447094573534 15.4888359830657 4.19950741767552 200 0 0
-3.18512299908954 13.6244217096443 8.88149737394191 200 0 0
-8.88834896779738 12.319240317648 -8.29251171428413 200 0 0
-8.98389796920979 -4.37687453867041 16.4334279694229 200 0 0
-8.98389796920979 -5.87444062475996 7.44658501654571 200 0 0
-8.66942611539854 14.860020569787 -5.66540382004062 200 0 0
6.98227239139017 -0.789624138270937 14.3563915735462 200 0 0
-9.85378723668806 15.8390659409161 -0.274690101024072 200 0 0
-4.58550254897138 -6.76997602775826 6.76437617308089 200 0 0
-8.98389796920979 -2.8097048161146 12.3699349451553 200 0 0
-6.16373031479384 1.5546044693933 15.4902035653062 200 0 0
-8.59417303951951 2.67476908501563 10.1099456201755 200 0 0
3.64180605513588 -5.12948049658953 17.0159742810037 200 0 0
-6.92439285668487 -2.89085507834024 -7.01375962089023 200 0 0
1.77737755035797 4.90187752601789 10.4429841992665 200 0 0
5.03021104816749 -6.76997602775826 7.82620561716415 200 0 0
8.10308916518303 6.13491201478774 1.67555816774473 200 0 0
3.79015815535566 14.8254169032582 2.31947256457376 200 0 0
-12.6968897336509 11.5956318264694 -4.71492103818083 200 0 0
-10.4235805327578 -3.33305402124311 2.29120833181092 200 0 0
-8.98389796920979 -3.43552303247287 4.74866019761522 200 0 0
3.67701614737204 9.68695245108921 8.49250053809968 200 0 0
1.07013351611781 -0.0738090914613085 -9.00914078871292 200 0 0
-3.68589244423136 5.8169675520381 11.7601355434699 200 0 0
-2.90004162005152 -6.76997602775826 11.274494270579 200 0 0
-6.46568279086452 -6.76997602775826 14.6333813523315 200 0 0
-4.72173244733639 10.0763382420929 -10.9393633458963 200 0 0
6.98227239139017 -4.92377164992728 0.34056056407447 200 0 0
-14.1819103266032 1.65167562260164 -2.60307485595033 200 0 0
-6.62787442892946 -6.76997602775826 11.1419081172714 200 0 0
-0.240639411496019 15.8904230645151 5.30081467129779 200 0 0
-0.18501372130178 -5.13804042731114 -2.1863432434445 200 0 0
-3.35649738743618 16.93756299456 4.11773755833877 200 0 0
-2.38277680877084 -6.76997602775826 16.7639744830835 200 0 0
-11.1440460778529 13.4210802266603 4.92155032646508 200 0 0
-13.4856985955235 4.65478028277976 -6.14353864130395 200 0 0
6.43712471332179 10.4229086669113 -4.31281614899062 200 0 0
0.689950544910074 16.8969339743202 0.13541997397454 200 0 0
4.90481664619472 -6.76997602775826 12.1464793504506 200 0 0
-2.80158038607361 -6.76997602775826 1.58222506824013 200 0 0
-5.5828541865041 5.35288072697635 -11.5681893116016 200 0 0
1.814748569835 -1.31152709837803 17.0159742810037 200 0 0
-13.438727964064 11.9175273460024 -2.08154513368031 200 0 0
6.98227239139017 -3.15713294691185 3.29752960228791 200 0 0
6.73693120053087 7.24723176437636 5.57073066771032 200 0 0
-3.19245648386326 -2.11320741929968 17.0159742810037 200 0 0
-0.0500531800141033 4.92298724163145 -11.1884182196907 200 0 0
7.52967415608665 2.30154181732448 1.66316994832722 200 0 0
-7.81996165136704 -4.77158390104145 -2.37422120400718 200 0 0
3.89762310261919 -2.74585718912045 -2.81744479629262 200 0 0
6.54938202359504 11.9580622430177 -0.414993565679677 200 0 0
5.86086411870362 1.5546044693933 7.50749908264676 200 0 0
-11.1768697093385 9.13729162684037 8.34389293195992 200 0 0
2.87473893742431 1.5546044693933 13.5876564375805 200 0 0
5.65678681658542 3.45245931009803 -6.90787616530871 200 0 0
-8.7701706209788 -3.45772055622129 -4.79238401101609 200 0 0
-11.9076902126768 -1.78071178020344 2.98808142202808 200 0 0
-5.7007268518652 14.60681216745 7.6303263731321 200 0 0
-0.287564100877291 1.5546044693933 13.9397753029496 200 0 0
-7.03926191352542 -0.54885172636024 -9.17578919175841 200 0 0
1.8255551480519 13.1748021948991 -7.54828581157385 200 0 0
6.98227239139017 -6.49433920332397 5.88835970681952 200 0 0
5.58287953378816 -6.76997602775826 0.01209873905663 200 0 0
-14.3549903781775 9.755319162478 2.56903932600385 200 0 0
-11.2796119615838 5.68485242150922 -8.85002349696146 200 0 0
0.944322666826562 -6.76997602775826 7.29266016188599 200 0 0
-2.88853567205959 11.3446549646091 10.4166869252341 200 0 0
6.98227239139017 -0.427367229188018 12.1002733030363 200 0 0
-3.74477055367326 8.39714828428676 11.4962445787492 200 0 0
-8.98389796920979 -0.938431673515431 8.09143529122602 200 0 0
0.166894284366983 -6.75767053722408 17.0159742810037 200 0 0
1.57228558576501 11.4694339840945 9.02542039344726 200 0 0
-5.219942612526 -6.76997602775826 3.16742700777542 200 0 0
-8.98389796920979 -3.67050251323613 7.93344308459078 200 0 0
7.37796675535341 5.01099442716254 4.28692831804541 200 0 0
0.393075470210265 9.66692424485344 -10.433914002143 200 0 0
-7.27660875121221 -2.68923624873745 17.0159742810037 200 0 0
2.12050347688102 -6.76997602775826 12.6382172963635 200 0 0
-7.59281458588335 15.7426778437286 5.04303187894665 200 0 0
-10.8667372437782 -2.99685472379324 -2.24925218596096 200 0 0
-13.0306248433342 12.7580809602673 1.20937844013862 200 0 0
4.56506060783244 -2.49636934467851 17.0159742810037 200 0 0
-0.59336588955339 17.0326728914481 -2.49427265857361 200 0 0
-6.20787220874569 -5.2394999321935 17.0159742810037 200 0 0
-13.5967261013669 0.283097794520509 2.30898503238962 200 0 0
-7.41219116747221 7.90858481848821 -10.9254925116519 200 0 0
-3.65925582766432 1.5546044693933 15.997585788817 200 0 0
4.82883979507741 -2.87937204394439 0 200 0 0
5.61385412432472 6.8687355029948 -7.32854723368013 200 0 0
-3.45796429079413 -6.76997602775826 8.87157409044574 200 0 0
6.46902805970419 -5.69437729435195 17.0159742810037 200 0 0
-0.899529557366648 4.96292771219184 11.4219385647603 200 0 0
0.589880487416242 -6.76997602775826 3.82312925415795 200 0 0
-2.63305040909126 9.23528648027409 -11.2489521982116 200 0 0
-8.98389796920979 -1.43825715858797 14.6132162906865 200 0 0
3.57003435729222 -6.76997602775826 9.98475015682301 200 0 0
6.98227239139017 -2.32719348166976 10.8170335721991 200 0 0
7.19174396407153 2.05113609685045 -2.8732150494192 200 0 0
3.79245046938744 1.5546044693933 8.88672034796209 200 0 0
6.98227239139017 -6.32094989594787 13.2272421121227 200 0 0
6.98227239139017 -3.19536204526159 6.25902100982913 200 0 0
-2.70474529090636 15.4259167972739 -6.87858461889143 200 0 0
-0.842348293040065 -6.76997602775826 14.4931783392878 200 0 0
-6.85957631316206 17.2041052687768 0.0482445225167121 200 0 0
5.16859522608588 10.9033616085088 6.14321490741422 200 0 0
-8.56076987645793 4.59452627774815 -10.5512803030962 200 0 0
-8.98389796920979 -5.5045291639499 5.11733032725923 200 0 0
-8.98389796920979 -5.09045795792079 11.3271140223124 200 0 0
7.6237975867922 8.32007791938067 2.83359129760486 200 0 0
-3.10406593827767 -2.33764554259127 -8.3622823175371 200 0 0
-10.8553165365244 14.0505579745772 -4.3236411142661 200 0 0
-10.2542722376308 5.56797082154665 9.64785309643993 200 0 0
-0.969719699930691 2.16131400710324 -10.8445301811691 200 0 0
-7.04440998238022 1.5546044693933 13.1807793658059 200 0 0
-14.7067964733875 8.92225117205256 -2.13478007319148 200 0 0
-7.00092382070018 8.45076427444001 10.9515662806973 200 0 0
-15.0249824064395 4.00258000998548 1.63291546146396 200 0 0
5.58223668886779 1.5546044693933 13.0126546276656 200 0 0
3.59176142119425 1.07008450207279 17.0159742810037 200 0 0
-4.7340822001185 -6.76997602775826 13.0698870090174 200 0 0
-10.1098025006892 -1.57475308543253 -6.23918030957626 200 0 0
5.05498848964616 12.7448973111766 -4.2385842312842 200 0 0
-2.72325524148905 17.639219223387 0.613127877319073 200 0 0
-3.17883773125247 1.5546044693933 12.0343730457351 200 0 0
-5.08052297362145 -6.27544849516882 0 200 0 0
1.06384653648204 -4.07281027449569 17.0159742810037 200 0 0
0.960926203950734 -1.9791838427211 -7.46193318228875 200 0 0
-10.2600131572395 -1.70863011085908 5.90803633964072 200 0 0
3.68522621321332 -6.76997602775826 5.47787999180604 200 0 0
2.29605462853348 7.57658133950948 -10.0785257708665 200 0 0
6.98227239139017 0.224570711578874 4.68766769079773 200 0 0
3.13482610831637 -5.66024565224301 0 200 0 0
-5.08928675417006 -0.631359536218682 17.0159742810037 200 0 0
-11.8474078051334 11.4081300978973 6.25815287219575 200 0 0
6.98227239139017 -3.11689402562094 14.3856971869913 200 0 0
-2.67858836271965 -6.76997602775826 5.21265839989827 200 0 0
-5.10468447898159 1.04307745397326 -10.5864354045468 200 0 0
-14.4790084832375 6.48996368079944 4.27480333862014 200 0 0
4.72042074781001 0.0774875977491645 -5.99999505738495 200 0 0
6.98227239139017 -6.15292191508066 2.38411124848076 200 0 0
-0.628465608234675 1.00116188931421 17.0159742810037 200 0 0
-8.06935910967447 11.8452282906036 9.09402747473192 200 0 0
-0.810744730747468 8.77629866232239 11.0795399563938 200 0 0
-12.9182116625701 -0.841597694512021 -2.13875637441571 200 0 0
-8.98389796920979 -5.84806553632768 15.1020668236571 200 0 0
-4.66892256972775 12.3569385308033 -9.77964585494435 200 0 0
-10.9865884255112 9.59229728111772 -8.32819575301878 200 0 0
6.98227239139017 0.799001569898504 9.4336250655313 200 0 0
-4.75661582737231 -5.03118404129217 -4.10810832369656 200 0 0
-8.98389796920979 -0.472180401774892 10.6928949259774 200 0 0
-0.481730433689552 -6.76997602775826 10.0972792799454 200 0 0
7.33547830209842 6.7348070446741 -4.41273081832103 200 0 0
2.54360438204554 3.59053733753886 -9.79442647630325 200 0 0
0.645923257618638 1.5546044693933 11.0743164156984 200 0 0
3.96482993998052 -6.76997602775826 15.1663801845872 200 0 0
-4.96447412754248 16.8514183176803 -4.10361833570401 200 0 0
-8.86799974520261 1.08718393697289 17.0159742810037 200 0 0
-12.7835698092728 1.96316603004548 6.09553366977591 200 0 0
-11.2217847290512 2.41390155082469 -8.18324815652772 200 0 0
3.60762609491236 10.9915028641415 -7.84815066587697 200 0 0
-11.0414463911963 14.8254829127788 1.65407441459364 200 0 0
-8.98389796920979 -5.41045267541907 0.936470471828938 200 0 0
-0.678238164140059 13.9758109777691 8.08070998554406 200 0 0
6.98227239139017 -5.82670023215502 8.73797306421706 200 0 0
4.26017793357996 7.01204905289227 8.73822592923544 200 0 0
-0.849196765385587 -6.57188993437372 0 200 0 0
-3.17649550782255 -4.58542659913062 17.0159742810037 200 0 0
-5.90902927551074 5.09771426260825 11.4902668681384 200 0 0
-3.27196207351475 5.46288923579661 -11.7496144172457 200 0 0
6.98227239139017 0.992969970679311 16.5354298094985 200 0 0
6.98227239139017 -1.10535366099632 0.408970499513815 200 0 0
-15.0978145785009 5.45589911795319 -2.11048418072007 200 0 0
3.22204408457892 15.5374985059951 -0.441384555561681 200 0 0
-7.21574076312709 -6.76997602775826 7.9466417176602 200 0 0
