ply
format ascii 1.0
comment File exported by Rhinoceros Version 7.0
element vertex 898
property float x
property float y
property float z
end_header
-153.980681832952 84.4225662895264 24.779076414971
135.925716506564 226.885592520748 -88.5240164756858
227.894862475577 3.02947338076354 81.9907219818485
-56.6276353535354 -170.924848152596 49.2533975227652
50.7416779478238 -247.894334620462 88.5177860813331
-268.883373972498 -111.858597216655 122.755775876327
244.311020308717 -242.343200741107 -14.4174786605437
330.721624600615 -95.9673039112673 -25.5524248991193
-188.340291320472 -19.2652026077821 56.9257022815505
-144.87563312362 -86.8309447637014 20.3061573386326
-252.503902774391 -74.6311303768161 100.224521423643
36.9483065322958 176.593840157453 -24.7734311993766
-214.215899066352 178.867859996111 -86.8124400799324
-185.555462954446 199.688434893869 87.9397417658572
-340.931211500769 13.9361264636535 30.0559328299523
-212.106291384975 81.808813180466 82.3472748809122
67.6621793688535 -335.907733748272 -6.13469216805925
-100.097094208162 -299.178404268622 -63.3312346699172
-210.55571190256 -178.146610983274 154.255671024485
-330.012841369784 105.842917766449 16.0935913529392
9.96659183245771 -331.028032843608 -43.2629895071807
50.3464573059648 -239.577306593141 -88.0110197174268
227.700572521957 -149.413210121824 -87.333510243639
111.182509224251 -316.740061959004 -35.9253142299062
291.033491157658 -187.550380723248 6.10569173331322
297.492816278325 -177.143166838566 -8.44432183985693
-57.2625224688722 -337.080698231375 7.1850716468683
347.033084723362 -37.0748392891406 5.2962103781344
180.946528852552 255.416840284599 74.4678898061781
-127.583614054934 -226.546132414281 88.3062948282703
160.193006228848 -65.0605559480846 20.8211486735052
-66.7174048875781 -325.115170836512 -41.4217170096688
69.3929173624888 347.015714753333 2.81729753859744
-9.7476678686445 -309.051962138229 -69.0737494926512
-246.102606095187 -232.360593280291 -27.6403408243475
-155.758810738351 -189.9002046078 -88.1249135179937
136.385679034977 -256.333966368618 -81.312105741317
216.201230134269 -200.27275597676 80.0703578191169
-230.288953497576 142.429859502727 87.9784658108485
-254.290532983121 -178.146610983274 132.598020885633
-142.307447960793 314.845280917076 -34.3385161033361
-177.229640929074 -166.123543802041 187.039705766721
-255.352632084136 238.172856188009 15.5842621160521
84.240793525254 162.57626018664 -32.7688168955504
296.372570418898 -92.8502655861506 -72.2883004108495
252.256893947913 -192.903555107562 -64.9993672980078
80.0777476688591 -290.746639924049 -75.0043898937063
291.599339264529 0.387882817282115 83.1621605295614
-160.627693925963 160.994775066216 81.4050544980705
-91.6492807146439 -208.233537574005 84.5781615097478
308.628303372288 -156.554981254917 13.0576402126416
-93.9037616881166 255.276570363817 -88.181948473854
-300.988004959878 126.599507899712 58.4418159859844
213.833051345488 121.006090565902 -86.6547566219258
207.401340355749 -114.947484544977 -85.964754617577
133.854164083078 298.701596087678 -63.26351346574
-246.526932486618 76.9745357075671 88.5194750454466
53.2976314001876 266.844239339838 -88.2726854945212
278.65049199675 -37.6113737410234 86.0705404553454
-268.883373972498 -128.078234713542 93.8789368709458
9.37115207419195 -209.297370137583 76.5535028626393
-207.337785220404 -134.902714197149 187.039705766721
-85.5835901497342 212.985860450087 81.5143955158041
338.648887732128 89.6816437426503 12.2341015116964
-176.661116350366 -288.536499914741 -26.3107191866792
-176.003068134288 12.3868326507855 34.2554912223584
-203.299404753259 -74.6311303768161 106.489898308817
-84.3934236258056 -238.070554560763 88.5213884965091
166.246741732059 -58.0523602700682 -30.3872795828964
-291.144119145207 -42.9009264024588 -80.2505124669132
183.362566870856 38.3670749468387 -47.0209622158687
-215.809943164299 252.564538937753 54.7340712471725
9.92692569453662 -295.603155746109 78.0258805064199
-247.955466829645 -136.639564926611 -84.0227981791024
55.9558913392199 -332.400706581861 31.2595466039944
-230.890054317655 -76.1730610932282 187.039705766721
294.958484598781 115.119800376865 70.5806882984598
68.654168640349 -168.387180314767 49.9454840758448
-201.462141068041 -37.2928931478623 -71.7793315268614
0.860069936602268 -259.999412712429 88.3164332367311
-163.142933715359 -297.635541800959 -22.2701986220032
12.5151404977692 289.22790823634 -85.1372039073288
-268.883373972498 -113.434684156324 146.16145653347
-16.5096645258645 -267.135088935615 -87.4365740346431
348.587093848815 -19.9073924908216 -7.24539812686979
-197.056099674564 39.7356064370377 67.0510953095566
-189.815661711996 -70.2084362474044 -70.5481720187277
-172.705112810214 -118.308116096682 -75.9321161040183
6.17197117903078 -315.680341560381 63.3683271461899
-345.536647427068 -4.00044677475175 -10.4557681353273
-22.2000337083764 309.845072238542 75.867357490655
-203.195795633093 -178.146610983274 103.762893318393
-68.2893836673385 -150.360429916257 0.921126667259477
-75.425035330612 -160.067373055843 44.1599471397107
-165.478050000915 295.152239629259 -47.3186784115688
-209.092258684288 -74.631130376816 160.498308493143
154.174865917273 136.947654102086 -66.5706488463516
-37.720518325705 -319.927669499873 -56.174337505985
125.104644807664 -112.809222159408 -0.366267914352055
-230.123847847434 -105.546644012863 187.039705766721
-275.361002982288 -178.449071016357 -49.8348010013816
89.0042038323853 -237.023369704006 -88.5118528532841
317.877902247719 -18.9532357850189 -67.2802032485401
188.49659792479 143.723894304201 -84.2167456169873
210.906902445857 201.192262668745 84.3752342534747
-231.100086909988 -178.146610983274 86.5220367662916
-192.058795067465 -178.146610983274 134.052062825614
-238.40175769449 246.010593496243 -37.3451102720343
321.145178070316 -113.360533094608 -35.0397286417381
235.091470684859 -249.67349891812 19.5670589326695
7.71830456918322 255.069656820508 87.9578880654212
-181.945572251725 25.3787892215957 47.4147965421933
104.248584090534 -131.438626570458 -5.12467788573259
94.0395546807195 337.529754713621 -24.9087396282015
-213.842657918357 151.368544140416 -88.5246310797854
-74.0733820482882 305.130727544329 -73.4511206219838
229.049054663768 -246.233398996906 38.4758684462309
241.875156656987 180.60188380296 -80.1626394302864
-95.1177960728683 169.550150180236 55.307376241217
-331.951735000296 92.600244648426 23.56386645734
-228.634296247716 -74.631130376816 126.205421301456
248.177576220082 -141.695514449581 -84.1253596544868
271.069229026053 1.3470870247981 87.9825671922652
-228.884703347624 79.6747880860436 -86.8233620177576
-248.181737908097 -27.7813654946723 88.221295952272
114.808369915595 151.753693378748 -47.3650887337068
174.720160071897 7.74736391183246 -18.5459618631659
166.654043501136 64.0886792820903 -26.1137285898013
180.530382812176 197.375751828247 88.4888374347778
-97.5188962328247 -146.242437615104 41.7278221674
12.7322707162664 -245.320130212047 88.134509395308
-138.980293738457 103.096937477504 -5.8602964918773
61.0630259896694 334.549052471455 -47.5326994382187
303.823042682059 -44.8795876261226 -75.1941051798815
273.418410016333 -200.752666334645 34.2521258189368
-94.0236081795995 -182.819630597109 -74.3043480221519
307.45148900389 -108.188492765448 -58.2541656368643
-68.7607583953845 -238.458224498136 -88.3596433587564
211.204240023547 223.412062511295 77.5968870583725
-177.65967615597 238.101582755226 -81.6856149991422
-249.33716886134 -109.874465919787 187.039705766721
74.7069311245704 -156.621313805093 34.2591277654403
-175.133472469008 -120.477056106801 128.380844798746
-200.106138319742 -84.6604179024519 -79.774610166595
-175.133472469008 -108.044146060565 102.50506625829
-293.966275406688 -177.727218778123 3.99613883862087
-239.116183710765 6.85906953365656 -86.5421652356474
160.684748938899 -299.730191764132 25.6985643834041
-317.212815749872 -125.813092225735 23.0501267683041
-204.059877305261 12.0546173656731 -70.4547810744829
4.4959202187401 346.589022592687 -34.7242536003031
175.74837766853 82.0173197481976 54.8092744420615
-268.423224158191 128.470449540339 80.2992534452398
-145.562813701863 -86.2040785682578 -21.3360656479872
286.67771607517 205.527834160095 -1.83100973121522
-175.199115999577 65.4037607792978 50.4529259864849
-112.609553125797 301.366634062489 -67.2712101949647
-205.218660542733 -252.666244539106 -52.2344303912019
258.702000135636 167.627388411976 76.6991615137983
32.0320697512629 174.06533771172 -4.67552995116505
208.059949768197 283.502087091493 -18.6426455876089
-271.593468242838 -204.244829050276 24.35869895594
303.493929116089 -46.6688363193405 75.2090496343276
-92.4731883483607 314.554285394184 -61.7428677493819
-208.85013905003 -181.836237824082 -85.6365648159436
-13.8751126288083 283.432738537859 86.5286423056744
82.823929296768 259.718630458376 -88.2368171514924
100.23626268815 225.758108289306 -86.5968163070964
306.200992874869 157.160535419734 36.7730569507896
-198.324549082257 267.089657178838 -54.5769638841945
306.238263167578 98.7863602788794 -66.114818750943
-283.98219293401 63.4787396299943 82.5357759045496
123.32548647618 -269.617746956452 -78.2650172379799
-268.883373972498 -145.999512261148 90.710989747767
99.6757514364808 -296.296518060754 66.9828873762437
265.164858306431 18.3029664893358 -88.4290726039942
-299.731906973846 -145.084061040477 -42.7085882072519
-172.73024873261 -146.812008082952 -84.0432772720384
262.594626299595 -28.6032360444084 -88.4568202682594
108.265721162102 -290.540711055801 -69.1988509206867
-166.348264404591 196.3531386785 -88.3689931360366
-82.7416894710875 -147.426156325911 -25.7955180044779
-139.874304229402 -205.938564791115 88.3907488194615
-253.124048099564 -155.05491705795 187.039705766721
288.374685184161 47.1635120504466 -83.2636442634116
-182.067683761258 -178.146610983274 149.353025487133
-109.453353468486 324.650793183885 -41.276429526178
269.432992995187 -215.306966009078 -13.1416289430961
177.79731179007 -227.782038113853 -82.2166975439131
-186.38284310151 38.2209493356008 -55.9823013857343
-189.198498392939 -59.0130280500857 66.9531011889453
-175.133472469008 -86.4930728345912 116.536280955684
216.041120179635 197.153718740788 -84.0297774396197
221.83910645002 274.143415840074 -12.497005906939
48.4481193385672 247.86792600179 -87.5911045845703
-179.640846209666 85.2886317722298 -63.7689200336667
-216.1428261245 -160.633472367452 187.039705766721
243.611687450188 -122.35910907335 87.3976593510816
84.7906341870516 -147.776826137995 24.4284485556929
185.515352161544 152.183488891878 85.0700518921673
-190.86635263575 -74.631130376816 126.397650354517
31.237346295994 -191.660122830918 65.0537644218735
79.431334507988 259.413581491386 88.3330044655137
75.3502081497769 -327.227212942029 -34.8677044183628
221.414818377591 -264.174506542155 -5.03390767519888
102.981461289309 -200.89057332479 83.4560850437246
-46.7575734369891 175.061632237228 29.9889646460647
-265.063370055252 -178.146610983274 75.0317556793349
-275.5041839528 -9.74074515098414 -86.6432081835421
-263.602003981153 -200.231069702748 44.8398033254007
-232.845993888323 27.8661741311741 -85.2498584899098
-233.766873506834 215.670427024931 -68.5243211066753
168.163091882379 -73.498893782957 46.5946741333964
-215.45411486092 -158.179901160625 -87.6349906534909
-234.059044987004 -167.564845605685 -82.1197416534716
16.6014622571747 211.289390361769 70.6514267646519
-135.494087833038 315.116926378992 39.9048830974128
240.884233106174 99.6931446763004 -88.4899194240655
289.907400562557 -167.095978786198 -44.6889816380262
19.7647579121657 -340.972561781384 13.1335786961942
-119.132308613555 137.842298737973 37.0980357551432
284.749788303157 27.5739976927494 85.1263533683405
-51.9727623878962 266.830773036094 88.2394938311107
-310.184277633276 62.2810783083179 -67.2923169276046
203.540874466865 65.1465320510181 73.6216141972345
-265.029809770224 222.190689928139 -27.6700567714528
197.604958027082 123.386365560713 82.9155723475558
-247.501601288691 171.019861847543 79.1703032607795
-108.304293563697 -125.766542072705 -8.53103606654477
124.878016896692 178.720211844768 74.9399124379968
145.632901562488 174.911843075225 -80.2496455235067
-120.191489531343 326.262909345475 -29.3865856955623
285.839192432863 193.090278067744 -36.1347475595734
260.927053623404 92.5581085094378 -87.4422932138216
226.311419998575 229.837306229126 -67.0706815279803
159.112174856845 -139.822175083653 -76.0898103963036
269.848447816341 187.407829206187 60.7793395861194
-175.606714499508 -290.809180720646 21.2876882521617
-187.994172460655 -87.653478109662 187.039705766721
84.884606314395 204.655109890368 76.9030959843872
-259.633731689085 201.449117258716 -57.7723499878658
171.663758791884 42.189753761138 22.0213402959491
167.903228104822 -37.7797044467675 -11.222207266488
201.666153529245 85.7339170657278 -76.7151465223858
-80.0843076203464 -254.170299034542 87.5874155107585
60.5931173953672 170.766175874565 27.2310329335695
-230.989836872906 259.741317581174 -24.5209648336483
247.305909835317 14.0022632757753 -87.4377250983907
-328.744095938246 -29.6609170534172 -50.2828129074039
-303.025446494092 165.65819351768 -25.6962022353239
264.911498503721 -167.615243459595 -68.9467409754279
-100.10166390713 -305.524224472931 56.824301333721
80.8476561994428 175.962995669374 51.8688251004888
-268.883373972498 -164.051269378342 151.748721390516
22.2031903941149 342.715097614469 41.5573443490335
66.8534346768321 -152.571895755307 3.58925447472645
-325.223600792877 107.482996646268 30.9136264309151
64.2408206700047 -335.872879413657 12.4441348274377
-205.404792713579 50.2979793909122 74.6424072304149
-267.130764526487 51.6977222678051 -87.5250495625644
29.7771354853969 235.543974381258 -84.0084944095293
23.0191567466302 305.679841031442 -78.3220439393737
21.1737122422888 184.452697015717 -38.6100727965359
-3.62604454523204 -172.116087514186 34.106267339932
276.488047456724 -7.32739096866323 -87.1604052922428
-251.747235423831 -74.6311303768161 135.752438092973
-124.302757738949 121.764457336123 8.41830492922837
-60.6924705858481 -169.81450842315 -49.6538758548831
348.584369092884 21.3638572625342 -12.4712061215104
265.764999550297 101.562958293855 85.9128820102649
164.726239408969 -206.221274874455 88.1873147401581
-62.1616846418617 164.281798788473 -2.61510462281488
261.487993537934 183.224786161124 -69.2891041941721
-184.774084293241 -203.48472330367 86.0728608668593
171.872973406453 -19.3010617507064 12.7484991552172
220.042071658665 -26.7748230416052 -79.5422394745954
178.611732583873 107.279315252093 68.9250646122322
37.2120113918999 -284.340421159649 82.3036953429169
178.70845431563 -294.002406751809 3.60214843716743
-175.133472469008 -121.932270943509 92.007654324293
109.460102601511 335.198764510946 -15.3783256750361
-184.68822842375 71.2546859887218 63.3230474388729
149.005024557175 245.133614327617 85.85025876489
154.774581739121 -85.6955275375432 34.9527751400454
-108.115740231673 335.202364552249 -10.7595082924725
-153.769541946776 -283.394953965174 55.8397069108109
321.879618507611 119.136628628844 37.6781754802326
-113.438698363379 138.543210706713 -29.0011847581369
-184.614360536643 -171.126580962593 -88.4876119336248
-175.133472469008 -148.370553436043 145.707412880209
279.473938496506 -192.539263135164 -34.2389039167701
252.093901182406 -213.610034494769 -49.7343439553947
-268.883373972498 -136.862456193414 171.639138292651
-225.20047065125 -178.146610983274 147.064674874581
193.468044673606 -76.6646138187218 -72.4260695902045
-50.2342209811859 276.086405660144 -87.0927651522065
-216.602662328351 -224.409923121493 -67.1773474510901
116.705265761009 -129.61688631378 33.2800611776208
-138.284017113918 -92.5359536881382 -2.34906661900777
320.205551930626 -124.659591459958 26.2842071777954
-314.233835378666 -111.006906396352 43.1266051423546
149.504998392773 318.923609034981 17.1806512041268
-234.554750856281 -74.6311303768161 104.437775188031
55.2277481325815 344.277688408377 -29.957201801349
333.812922086035 70.473446289412 -40.3686766705803
-337.105697531312 -62.3021932166478 -20.6446732120627
-175.133472469008 -168.455265665867 119.031553577959
244.276409278439 36.7804422254186 87.2425884644805
239.076374325849 10.2615288389322 85.7053078667657
33.1495025941882 206.3606155128 -68.2626527156305
-253.963558928179 14.5217696177641 88.4524285431438
178.569649556025 279.586708161789 58.4154442797153
272.627324821429 -183.409392858879 53.1724953014265
-292.003945129915 1.11611910989124 -81.6226346919328
-175.133472469008 -92.9534863959254 136.988938850225
-209.517674966361 -178.146610983274 171.310714539926
-257.430310898504 -74.631130376816 166.150966769297
-63.7120387538157 321.209814662017 -62.4318106804641
136.329831401537 -99.9115094482686 1.79278256988419
288.140345220523 194.578232000373 29.2455535006168
252.133781936936 82.256012273047 88.4976307525489
-92.9926506719895 244.897103889169 88.5004386820458
-317.559228447021 117.880765165411 -40.0518536915802
301.341486774626 83.5205837106498 73.0529420595786
-74.604626558425 163.391897813622 -27.1517578002933
-10.4838628796002 202.12459370052 -62.5359427392039
192.824135723284 -202.721368227617 85.4428064939357
53.164294055328 -284.450438559162 -81.2817957015203
-268.279483758501 -146.40198442433 -72.7970880075287
18.6576815347209 -201.111267801165 -71.5792003058356
-221.486435989603 2.42104180407443 -80.7641258358934
160.299467439417 -77.7488971977316 -37.0450239673149
-124.252514744004 -261.425734351088 -80.9776355316409
-36.5018098735403 219.4245451782 -77.7436837548498
-50.2503614689559 182.703036617292 -47.0629044272086
72.6616600363663 -321.749438925489 46.3145323636024
184.74417054203 247.2723735667 -77.0644444466756
-268.883373972498 -91.9747731651988 169.513502019905
118.058984864704 251.447441662583 -87.6545416935489
-302.831379604026 167.761159030557 22.8513669976213
-287.851236369241 126.579719460685 69.8979400653786
-319.153610571204 45.6216577321321 61.2979280564587
-223.658645761743 -259.55455647813 -0.0333002502149628
145.982246542347 -291.125720381931 -53.6482229624726
-51.798465621314 344.425920236102 -29.5008662060758
180.951991478967 -145.04438221326 -84.8027576918488
-306.682123642237 -7.60988534585925 73.5940465908857
152.718444233108 97.5707292508372 -31.3616215199139
21.4127235884087 -325.493453015306 51.2501531699981
-115.605566282758 -149.878365103309 60.4320629489636
266.412829352937 57.2981701548853 -87.9480892677878
63.9547599561121 -155.490464702447 -17.3192375206349
-195.694779226348 -131.446728161589 -86.4318907914952
-318.357877947456 -58.3962766519137 -57.9359340641286
-5.84069667118768 240.592739336816 85.0838582825807
-254.015723516117 222.87110858951 45.311618889472
275.0773939159 137.097921761885 -76.9593401059328
-200.450073578559 -77.0366658236725 187.039705766721
-156.91732642915 -62.4766571184712 -17.1823420583157
-135.062641902589 175.924373589372 -78.4188068086753
-282.128188113578 206.066850197003 9.75872691201707
-338.278622737034 62.2070891173879 -24.0806311035107
16.738597090805 -223.147509177842 83.1971259219522
22.1627288416643 338.159126025453 -49.1693954543451
-189.495821179652 -280.944353807555 24.6901675062245
-302.039517278876 -96.52045251233 -64.1636034668661
143.35525459171 -107.30077304907 41.0876649285665
-146.930400166799 130.537320326718 -59.7347698417672
-260.205981421853 206.15494897891 53.7071053760492
-262.677692127662 65.3796151946137 87.7669069217072
-191.861419528796 -0.96523547374585 59.23669316291
-51.8048307663708 -201.681982518947 -75.9996788451294
202.657969081093 -252.587228352457 57.1178200891962
63.9333974998015 -312.90840674635 60.0725586713063
-165.786977329452 -289.597282497106 38.0402835610724
231.941687798076 -241.683167590994 -41.2519648261993
104.044937414743 326.838584586993 42.6751820827153
-120.323137958763 -118.336284562781 -22.8385593809438
117.879038144627 -301.677697356071 -55.4755102713548
-38.6220442185477 -163.182959424087 -21.2282893358338
-243.570043164829 188.413384634607 -75.3888919168074
-4.48558200948296 267.901350419159 -88.4829097324862
298.392057877034 -138.301631890961 53.9681106227929
-338.982409478385 -31.5740265536032 -30.1207668496225
-51.0703269218921 227.246438437553 -82.6539548429398
174.034575975016 122.036250029554 -71.9175480889901
53.9526108394509 271.367377876412 87.8063808727403
-328.328620729039 98.9937184569437 -29.3702631578049
-75.5277829413111 224.146607591753 -84.0650531018293
105.946628321371 141.28132263451 -2.39021794523527
-175.133472469008 -136.815249689806 131.727868636385
196.298402207961 -279.564613681131 22.1974649968438
-195.376665705092 74.5466943018659 -72.5787724102046
198.876533911365 -280.789819184869 -7.97763745610977
163.854557471729 -208.326963722745 -88.079162857382
-122.356626480109 -319.301625336668 -6.20244133101424
-107.353619026452 -199.432824593431 84.2343769246525
66.2807908299746 -296.80077163068 -73.2509082550393
76.0301549007845 179.232234322084 -53.2564037949679
-292.005569569894 163.017729368928 48.9798089893524
56.9983453158915 -164.126769128779 35.7085333970996
-268.883373972498 -96.5029903732628 111.517238572784
-175.133472469008 -74.9359054580931 157.017504440779
213.309903921079 -81.5456565124359 83.0246391215768
-8.99853034037004 -207.801382438354 75.7478469708
269.815140302198 -89.1672853156198 84.9854962800951
-94.6148323302097 278.273634681961 83.4175587638672
-108.161801015496 138.179248958296 14.493932894799
-149.610630431539 279.513947527571 -70.610114299886
109.574327645101 -183.954905664888 -78.2353039847831
-246.229051046954 141.451417606192 85.4279409598193
-116.878693874524 322.581376747596 40.1609585106337
-206.908971258867 -178.146610983274 121.580650483086
230.87530249587 -192.25535477927 -77.2646911578902
-11.3149011390275 -174.969550436083 -41.0228251097019
166.827944317578 298.66771101706 -44.0470922947618
-175.795982114763 -74.6311303768161 90.1861506831267
-175.438113467592 -178.146610983274 102.539481021516
-228.140575952084 -74.631130376816 161.049134475375
-176.039313834295 -125.410741261794 187.039705766721
41.3634207634108 209.50760910174 71.7547152908122
332.297720692432 -88.6096522261355 27.4141974709592
-176.170165589109 147.386903503395 82.5286833365142
319.114442096575 -8.83733828878097 66.7524570527015
19.6414587881517 -169.595114893308 29.7267310307697
-86.349999969039 153.371012033047 13.3661730624564
344.888748513349 -29.7666762103881 -23.2701246311629
16.1844762624695 176.353811784994 7.54535006443058
219.080162661944 -176.616240626141 85.1859513997475
-234.316059849294 160.936727840795 -85.4731530667744
-127.918847425931 285.685900880663 73.6706132614184
-299.848509905778 -165.462017508555 -15.0604606682915
-214.769850362779 -265.554050618209 13.4138311433388
349.545255700207 8.38502070427342 6.87634146019007
-188.070617738446 -24.900202548407 -57.5705680360164
-250.522301669986 -139.000894359924 187.039705766721
209.040844414071 54.3273909377915 -75.2616612565026
281.082746596536 -200.320137724154 -13.3860037359451
117.646286553133 -122.119425423653 -16.1189972111846
-221.932802535437 272.194311658019 -3.5487759991038
-268.879435180636 -178.146610983274 105.748812140382
172.136597251181 -285.574769735329 42.1327707262853
158.239371718542 240.276914750843 -85.6210555550397
13.5402096082329 236.905178096449 83.9954133868187
-182.301253895613 165.783299200907 87.1517510541854
-234.636605249944 112.130602801653 -88.5271408459936
-25.5044020431816 -305.405233973578 -71.1274229593467
258.187062572233 -229.61803490268 3.45512253910368
334.19754554759 107.333771417319 -8.59864292448822
-188.548396040707 270.105456245502 58.6664543675123
-205.949423721659 -59.0114223920723 -77.9382894797733
-12.3931775335772 176.416293198443 -8.00771277756135
171.865430708531 194.820989815203 -88.3792819326264
197.30776292062 11.8423413220385 -61.27965119792
-189.265133634557 129.62043491073 82.6225009828797
274.685907374722 74.6226349626284 -85.7571246908158
-121.969831347038 -260.480652588395 81.7591634621339
222.135652005285 -62.4685095488155 -83.6856274794008
-175.744591471148 -250.236253452606 71.7257617773496
-268.883373972498 -156.556556350327 68.7173377380691
-329.698325632609 26.8950210312354 -50.6351661180209
-169.47583003126 -9.40534474221601 -12.5932281869418
-292.270333932113 168.586595629559 -44.309489334794
-169.438594433889 -70.03865323995 51.0235574995467
-45.0320738561083 -283.387088990542 -82.0420995226844
121.829499230328 -156.781241510157 67.2674819969094
-188.750421545956 -173.03663133188 187.039705766721
-230.029319749351 211.388024751707 72.7729119762464
130.558995636107 328.926188857406 -3.21226226975145
-78.055598045942 344.413834302008 0.808414236200079
-225.697371968689 64.8361414776353 85.0732291860017
-243.566105847509 -178.146610983274 164.037250680256
197.226653481764 -42.3686811717746 66.6546294854829
-225.846849619444 -198.573055075386 75.4764382869095
228.761112703521 175.380592017374 85.2368485465314
-261.294782860852 -91.240620795174 187.039705766721
-168.63816428188 29.0521513927786 -13.2967610110152
80.5667591977187 -242.849870731091 88.5199714193061
153.257144778612 317.837019632939 -13.5562494414727
119.615878682423 273.933973849215 -81.9406673983426
247.220701249575 -227.748756332266 -39.6146314360823
-152.232882023616 -130.284468249037 70.0538695297366
-102.369341443777 194.989623621204 -77.1419104711358
232.889895170971 -225.925082050473 57.114495619757
-18.3251193743655 -188.580453283696 60.8758882291183
47.2530453692057 307.447945976096 -75.826047372368
126.750834640174 139.216245461459 -44.3850457048041
21.8466074858731 -180.304231117069 -50.7931044389968
-288.269187470561 -120.522639448128 67.939026107439
33.8115091181915 -272.483078077327 -86.1375305944032
188.668699968984 -27.1963097542423 54.4970137071747
-201.003052129964 214.915980905929 -82.5922083371695
-148.069680935252 106.733596505674 40.3892458264858
-60.2916950437246 -270.426574211111 -85.3722528935156
-46.0036798249578 312.668966154136 72.2223902921869
296.922601985114 -145.923586435732 -51.1353232754921
-167.076268684682 287.623016446823 55.2876392071546
-298.998982790879 -54.841413684205 74.8592072196156
-334.413407803017 -82.7420182421544 -8.94849000936975
-97.8478272983614 305.215059546375 68.4206933273965
128.806429169139 -127.908287174961 46.6964752097524
-38.7595175477121 171.774148804165 1.04677551320025
-202.494198887547 11.2892361847299 69.218250953885
-125.655748820856 -127.940583840388 -47.1563693121038
23.0689786105928 282.318856585155 86.6842896969132
167.869429068254 51.0530261425804 -14.5124808995544
-268.883373972498 -164.594447801484 180.320602586126
-80.3414226587049 -254.867307821642 -87.4751880146667
-86.833172011112 -277.549133900895 80.3350810244659
-36.9944065180086 -248.073496931881 88.4808099818963
303.257095654918 -14.5290284439682 -77.5847635055555
293.436233319004 192.904111736295 -15.9290791615357
-10.0966409322419 -299.732190363641 75.5949143098802
52.6431406665879 285.797837471062 -84.8611890551255
-159.341716885357 -80.8468387386472 -44.2491274673867
146.248588128919 166.404452561712 77.1711217633152
17.7524042586397 -164.869989019884 -6.69474037340165
182.813164842068 5.29452527745968 -40.9584899905152
-290.646053345406 127.1916576897 -67.6159378857938
-154.743913899558 139.498438370456 70.4705277745241
196.288085820961 -178.603694760114 -88.1285467093732
-148.081178644949 284.211417600424 67.9119343441134
192.912766649445 -272.034909332024 42.653823591163
-139.275027983725 -103.936119925292 35.8904839437115
339.262085872603 81.8205394900305 -19.0316416154073
146.26495185717 -281.282726684869 63.4617552410575
215.499272357004 31.8127882224519 -76.7038296214166
-27.5985014882031 -324.061562077413 52.2344236992264
72.967750210038 -171.176973822277 -55.565603730117
110.657275263874 -311.052545008085 46.4566656274807
-213.508892974895 -217.913226139799 72.4853737963771
-82.1256619487766 -150.043596543385 31.6326409475565
-145.406031760886 -154.53200544951 77.9241938560543
-302.092559268111 -112.027926212268 -58.6446510413035
-273.814210624956 15.555814912535 -87.0269968223354
-12.0299339159685 -248.294168563847 -88.3732769587778
-268.883373972498 -175.131473410866 165.697980914839
-223.72196384444 -29.4116284980121 -82.7971638149943
-124.201667474156 258.195310472239 -85.5676307324572
-179.103229048423 -48.3968596737884 -53.1984982450011
-232.857429530136 -243.982808579311 -30.6630523018867
-37.0117030430966 -255.731877993184 -88.4025671066176
216.811816323394 -212.506153686811 -75.1523766495247
211.179457736634 -262.187612564655 36.9508357684308
199.076256219337 290.923613222265 14.4441026259294
-234.657880303218 -12.9404912181024 -85.6530147523751
178.403536609909 227.069582887606 -85.289319076484
165.684476438169 61.3618902980147 19.2971706124984
-137.296382731842 305.322326833038 -53.0810886901101
115.321088638508 230.848709357498 88.2251720276194
-160.707134942454 -97.7415311801807 57.9154735494449
100.930688504663 256.753966986111 87.9076495576579
320.915188169227 -132.502261517066 7.21990932729749
-51.570072961978 -186.851089597244 -65.2882211070468
-158.176239030966 69.3459583247564 14.2991543578462
-296.047492833989 185.762103957113 1.16444716647656
-168.001960286548 47.3364028128201 -25.7016394835998
-196.428790953568 -74.631130376816 170.417315817252
199.420042743045 108.01305359944 80.4537676603059
69.3366954609437 323.691467452176 -59.4201116073122
254.482126731244 162.834596142753 -79.9151741999821
-218.190854502277 259.953366051079 -44.1866474727206
-75.1317730405805 191.758312253463 66.7524709184908
-175.133472469008 -94.3204221729135 70.4368461437316
-268.883373972498 -95.6678633419597 133.564105818677
-172.407650177748 126.280726192705 74.6075973302181
151.072350786264 -266.585419004368 -72.3960701589762
142.836569236235 104.293392347901 -14.1764536676704
-315.795664672754 -3.19715328160326 -66.7457130655997
-333.30329675004 81.43442119053 -27.9276444473521
54.4578256179457 -329.630538780983 -38.2157160322912
-18.2236057438252 336.496644983378 -51.6017788109391
-178.855045509049 237.143531774281 81.6956524511853
-97.4253294939601 220.418311826487 -85.5009939764638
-29.1712639729855 192.635448464963 54.2088094007667
145.96605885455 216.540833347546 -88.4351481378535
-190.739826493076 5.48674082429925 -57.8367187556705
-43.0038453257542 285.97029775259 85.1111233580117
264.038789680531 -55.4271597226644 -87.9880796333685
-137.523411359477 -180.016928066313 -84.1702243570189
-152.917666459937 -283.87682603506 -55.8124927496716
-47.3719291442294 -270.463377604374 86.0225240937971
-268.883373972498 -173.329883931708 135.405413579679
225.320059585271 -132.729868657918 -88.4629135346236
280.642964567205 75.3416035032858 84.0074525810581
343.887723910383 14.2357597649522 31.5892534727908
167.674768730589 222.681738410216 87.4669015556672
-268.883373972498 -163.684888933524 112.854793207681
219.840321495807 275.51068122629 13.8347135790294
127.862688479495 -301.831090613366 50.3835147056859
58.8960615634503 220.400361793472 80.2868798056032
-288.455663266276 182.596827327394 37.0798258700051
-292.676765657051 -75.4557447137531 75.7125824422403
218.689331762899 -257.125194500857 -35.2548791778766
3.74769214545444 -261.775782250083 -88.1750581730305
-181.922123266742 -269.971569986556 -51.9477061792711
-165.623582254672 -33.031929461124 -11.8532604194024
137.996998767604 319.839253396913 30.9678743367108
-268.883373972498 -116.030566812681 81.0918213070762
-38.5399922580764 -172.313239180615 -43.5571414626966
-265.210539094652 -125.799557237059 187.039705766721
179.123526225809 -8.53837321158989 34.3136367088724
272.500945762525 -186.83883967043 -50.585141603997
324.585725845927 89.717013827537 -48.5007429053363
174.676161619237 1.6196998836438 18.4983363213784
-300.496515696216 96.6406706198773 -68.4532572429234
26.8718048327451 189.526756165413 48.6911449209987
-93.618975048402 -151.63918968215 -46.0823794311462
-273.062489794908 184.16193755646 -56.4516942031661
204.121347914439 -40.7967381416608 -71.7070665823316
83.8529192304795 157.413900717653 16.4941873372283
-165.476917342292 -57.2331269435373 36.0415152135123
-88.6157193517313 327.186194777848 -47.85165173016
190.816854281617 15.9211906508859 53.9361807850146
-223.372869786499 -91.1754286832972 187.039705766721
103.339521553987 204.934020099261 -80.9473837228794
121.032485376891 128.455103340847 5.87687820346214
311.360811495458 10.4364386253459 -72.9857086031008
-304.579206195476 153.408133491252 36.6290442923537
222.942321957905 244.258984837942 59.1904102624778
-196.223607952037 -268.568790100451 40.5670222940791
-179.159998041343 -93.3170125361953 -70.6766747846881
-268.04602778908 -74.6311303768161 151.704813244576
268.667020331229 213.482481121484 -40.4352234090589
26.9531361887445 -234.59523967459 -86.6824299916908
-175.133472469008 -145.649301226238 107.704037784436
336.190611043064 -4.89386513556068 -46.9368245018322
345.90694973139 56.1810955639219 6.30472452729283
-230.211794044644 -174.124594982032 187.039705766721
-225.298927962277 -136.531596795897 187.039705766721
301.576621961632 69.8613631027115 -74.9691897046501
-175.126002519457 63.1252279205297 -49.3002606023136
-59.4142858335006 -301.100130420644 -70.7213220286906
301.884510404635 161.422789539825 -40.7091855344293
-91.6619323734827 -138.199023076958 9.5321267623293
-186.814498273406 -74.6311303768161 107.810439744704
-110.844421772484 202.916418991611 82.3962280591767
-276.300133434614 -115.822464281132 -76.8717383468651
112.858036741471 -230.159399447033 88.5203164838858
219.935737732955 129.831638571198 88.119654103568
-68.5775096738067 327.652207748314 54.0927695844462
-236.443955719714 -178.146610983274 136.80887264737
189.701315326158 264.747135583225 -64.5724860157833
-216.877029998151 -74.6311303768161 97.7558518094303
122.236125164549 182.263051401864 -75.8005735300922
-266.131562793949 181.984761210815 63.9653504082876
228.105412474723 -9.05853047436566 -82.2612033736163
268.755684630163 202.015216609416 51.6439958292935
-40.9977780837186 -163.871187917295 25.718783726758
-246.303575141234 -178.146610983274 98.5734248268392
245.676762054566 -71.6910669295706 -88.452013409922
247.512709492545 -92.6789674364809 88.377331574286
188.612152827999 -6.41089137038129 51.0922987665615
193.892295631616 -94.6978933476973 -77.5036939481556
137.219170735102 112.818609601404 17.3990810733217
-242.84020842178 -237.587095714916 23.2450733032734
-236.214469468899 136.198077214882 -87.7222156512845
-51.8417806476951 -316.594666970025 57.709849055235
313.702509131936 154.896512374783 19.8334254759456
191.568701788679 172.203731337791 88.249986331989
192.014034046764 -21.8699218676123 -57.5093653985705
236.402057340074 236.140457385531 -54.9790682585974
-153.460311231808 113.483353607113 -53.5225251445205
-278.135018858761 -183.221024959467 41.6304353675803
-216.568758907545 37.0143106504239 -79.4981664964586
-112.106490897932 -286.029283108655 -70.472857102767
263.096256646748 -199.439494483452 50.5731585277143
-149.870085199797 -206.672729733921 -88.5168547977777
160.244912127125 150.866139016014 76.4882562447212
-51.4643336686331 -196.705552539074 72.8483649692967
-104.218684972402 175.10930135162 -65.4182292906668
327.629579527748 89.9472617301856 43.5699480311472
68.6761377590016 240.521640695369 -87.1951237972625
-184.710816215205 -226.775023417551 79.7432595031973
-254.078183005281 -159.426439519127 -76.2714115238857
-120.642065883879 -281.960487117861 70.882843733843
-246.888978474672 -74.6311303768161 180.113686063108
-267.629444190132 -74.6311303768161 99.2009594922412
-169.606415456075 49.544282731605 31.7946681774731
-175.133472469008 -176.401607425239 134.548677498765
-1.58641762658357 216.431209969488 73.9225781598717
47.4256614425877 349.56691740698 13.9745786964981
187.879741286285 165.671158713433 -87.4017448095317
176.712028369848 51.8778000394143 40.7784647775101
-268.883373972498 -151.586518884677 129.808607220118
-190.790102149772 -178.146610983274 91.309835174929
-187.046480863446 253.068402506967 -71.8523931968283
214.821480484736 7.81901350222217 75.3542608511417
311.135962244767 -140.441517603941 31.8643316090023
172.752851062983 -263.757875024475 -65.5071082858711
-159.844593912956 306.792861618569 32.7435153365759
-112.312276280879 -169.944348942486 72.9582113369937
-345.477653454795 0.946324265382863 11.7305511625531
-270.578960937366 -44.5339595348839 -86.8008228060902
-235.842371175696 -87.9980763975321 -88.4308180610866
67.3838043751293 -189.539337989345 -70.4433859194654
315.864442252904 36.3938148638377 68.5069777151138
-186.607992413864 183.34417584484 -88.5257091264973
-196.172946637347 -178.146610983274 158.95210185803
-277.838575595114 7.60868611601416 86.2194147032401
147.612586446797 153.199535655965 -71.6057043778846
-0.627156701302829 -342.082832275299 -7.61466767116062
161.909737471432 -183.853978401879 -87.7863925301893
-47.7358452368799 205.196657956865 -70.2105813698844
90.5129521151722 -162.671389286873 55.1423260523723
-215.14649561151 266.569763559507 38.3512106407341
-160.234002840868 307.15317362626 -31.4541432592753
64.6053548369804 -228.457807479646 86.8510696357546
-339.8029273438 39.8289150212013 -28.6963312654928
269.696181557859 225.255729130344 -16.8595804114862
171.034975169823 -171.978131383073 87.3853800139811
-175.133472469008 -117.52733638163 169.776970412804
248.832462545254 227.758191706939 50.5097539600895
-186.166031979657 110.774287302958 -76.7115335839013
57.0487215152214 168.939408953545 -15.7008797994218
-138.84105596809 -271.64391180081 -72.1019737720776
73.2367797905837 191.56684864245 64.7810511044595
310.732340399866 125.334653296398 51.7701015514408
287.452358655559 -38.123010776172 -83.4718463985166
195.408035894919 186.855894736261 -88.3449555096487
348.381420128463 30.8985657727789 9.6074752428507
-164.580023191349 256.98584507686 -77.9950692148501
-208.269494436964 30.6163772248515 74.3765902790652
272.471091394454 -212.354640250813 9.31814459043013
-327.901480084754 -102.650539114815 -13.6517215996246
-325.364923721566 -53.0687163140884 50.3303892698651
120.62344774529 312.208565702428 55.1181126375563
-79.2270420178575 -330.17225736856 21.368117219666
103.806505206882 171.913339643337 60.7006277743628
247.542800462325 210.402268437972 -64.7517918033772
-244.389314110114 -212.335212814173 -55.1327812255638
-142.350103922186 262.645548773154 81.2598150843684
217.386221991868 148.075065468948 -88.5205173878794
131.387728056355 201.28175576254 84.9705882260356
249.852269083357 241.182339631108 31.9425167018706
-336.266739734463 30.7342566385232 39.0801840042583
166.85680108932 80.8552605116952 41.6617983920186
195.102961324223 -100.70882860828 79.5353472198161
-273.965355282674 88.7778446044148 -83.8264771865647
-149.05204749572 152.641939298866 -73.78363599583
283.235644353905 -169.121990681118 51.8149980964832
-213.46724839229 -40.6476613801522 79.2889945627778
62.018840213182 191.008491993614 -60.5176030356125
-113.970247126149 -178.8722090325 -78.0780606495989
330.714804208728 34.7501981789761 -53.2728231338889
-73.4667219510154 -206.937708465136 81.7241454131523
-181.379795080843 -290.158488321772 -5.17881622381905
-13.9359879557696 291.455911922585 -84.3987840421969
335.390609205881 -14.6313249718582 47.492964194871
64.202529445167 -224.852634378248 -86.0655841548937
99.6340404553972 303.043117431682 70.4833737520083
321.911056384002 141.996042839749 -3.82517033683603
-32.8195751305725 268.440343397565 88.3539975745829
249.814486627736 195.311271727858 71.1127172124285
176.185811087908 -52.2357512430618 45.7996370464286
341.606410648515 -66.4663626514829 -10.7260414863028
-128.857434726661 292.928914898518 -68.5125382936769
-66.921629408131 171.246444054096 37.3970726278117
211.295628064941 -218.410590257107 74.8775561012895
-123.494728976367 155.616211788625 -61.0368139984063
-335.958732947901 -36.1550591536733 36.2347023668946
271.291921322227 -147.271522014393 -72.8149866645784
-132.496721651523 323.250693130325 23.6988846382109
-203.213477124371 276.706353952458 -37.2340013177182
-44.0642002560855 -182.78456225883 59.430672572851
100.130065325529 152.662861169813 -31.7592737711883
-8.33239426266347 -242.762088192174 87.8508601518497
-297.141456138617 75.8685010314851 -74.6932406426425
81.3327179144908 -272.159339993123 -83.4897700150103
190.839689948982 -149.900970890031 87.2982890221297
171.265233368967 -106.857817270271 -68.4858349869982
-52.4027002878524 169.976848238218 -18.8721665697788
126.808177396933 252.862452079747 86.7768295519731
93.1451327538196 276.750997606136 -84.4463231544185
151.916121180192 -121.703237240646 62.5443255451279
248.441073713163 116.631771956525 -87.8456275125414
150.704796557834 -82.5584330808964 19.1265514784183
-227.259979281032 -74.631130376816 143.499983408128
111.418025383534 324.419767729523 -42.6358759638448
-175.133472469008 -138.072529417845 82.7053737248923
-238.454887041679 -183.746452160732 -75.4133980928568
-286.659982151242 -164.799016436151 -46.2408046530994
-125.989011780088 120.204850129438 -10.289996453612
-344.783222901526 26.5654996582746 12.4189708916142
-156.475415131192 -84.9713994242594 43.3598692842339
-260.558133336738 -105.157783361168 -84.855014921077
-108.141569965051 293.738537689782 73.8464198127472
79.8033899289193 -329.484849353785 26.2085166918213
-48.0478848546693 -327.072323980851 -43.8767185051917
-241.414624859175 -218.035956337192 53.0455881834718
1.07225579017578 345.676567441539 36.812957591835
154.896533799027 -70.8973111834766 -5.78250554203637
-178.655148151637 -229.656893317412 -80.4354829772012
-286.458078701825 -185.047327334836 -20.7413279641657
-8.10843185331627 184.736645500499 -37.5736371083665
-331.603845326313 105.661063036025 -0.849925056292638
-341.22825874446 64.1042426981894 4.49739196506377
173.297576043141 30.3918844997033 -20.0739916472547
-216.549713312301 -117.973379428143 187.039705766721
315.991806791124 133.403741713071 -38.5816255472101
-151.090995135263 92.5730273115046 -28.8949142694969
300.357305202263 55.9947966121181 77.2278892082169
67.2070465979747 295.936808865221 79.9310827812443
24.8802538144231 -306.311286619434 70.7030450848607
264.699819180748 -20.2175043095395 88.4041239277362
-175.133472469008 -105.316868167545 123.952730178072
230.185217406157 262.153172067173 28.1104980754112
4.48412114555225 237.812630619223 -84.2005321751046
-268.355728110191 -19.8217596378066 87.7388328048843
131.490791482375 -317.261845405307 -3.60627012041975
-258.563380372512 -220.238949863883 -24.2797455130994
-259.065112891025 -216.519532287443 30.5513530525078
-159.683044149811 -160.36894648216 -83.9960769475758
-66.815363128361 -241.681937136297 88.480728589148
-268.883373972498 -124.802717452047 158.684594923513
-127.678462115619 171.711746579966 73.7522836260336
-229.664397124006 162.464559838082 86.2310457256709
-103.90490380364 245.395292800208 -88.4926668744738
-97.5466107640814 -327.66485235005 -6.94470203245768
-197.654199161399 110.391226217392 81.6255450682413
37.4955470155954 189.286879008237 -50.8922952862374
-106.808775142684 137.927353403356 -4.96197974486578
-77.5659205313674 -178.071654624221 -65.620848311335
103.163071042905 -256.636330208457 -85.836191324647
-175.133472469008 -164.304528112193 151.289261211274
-275.301573333349 99.2462247113753 82.1770419888577
242.125477325563 -99.6860585409883 -88.4802078091292
252.163665292025 60.3023230164269 88.4683626920773
193.939012028684 56.8784621005754 -64.4945839241366
-164.255523960059 -53.548871338169 -30.0466961911956
31.9332658176846 -177.283888964103 48.381983190163
-94.3831550919512 338.940186065943 14.3013540549673
241.609381737809 -246.54780189417 2.3422554416697
298.692545950907 -59.8582557877278 -76.5102619399235
-175.299222072751 -98.0143475656888 187.039705766721
-309.734532982381 109.098244227689 55.8288185182808
-344.222451261972 -32.2039182041993 -0.870092197836927
-314.084277700889 -30.166522754665 -66.5809138832544
-181.450220293039 -148.654985437497 187.039705766721
-143.533792168768 98.110243147567 14.700013642116
-226.980749435866 -178.146610983274 114.010486255385
-202.570023481113 -99.891061030563 187.039705766721
-268.883373972498 -166.6872609616 88.4989632913897
-166.812218590113 123.988781673808 -70.4918572714314
-31.4971768887903 -301.994169002431 73.1268651716679
-14.0798888432805 -332.136373951428 -40.7014371105995
113.670117102033 -209.375884046319 -86.852619680849
-227.952845524095 96.6627806967035 87.6501127371093
-73.817584633794 173.666911602783 -46.579476170248
-0.504309365650832 179.651716232737 22.9522225737588
-55.6016624676809 -332.856556628788 28.5662946349413
-252.747471732209 165.805900088669 -78.3619466685694
-78.7493541683545 266.117802815333 87.5512112108919
256.258094813624 -48.1314664472433 88.5255841494706
266.178557228485 35.8055297973889 -88.2812738447588
-235.098907978921 -154.18994306877 187.039705766721
78.8877558030336 341.932674970205 22.9707862839075
-141.530160018526 -261.398397353913 77.0885252591368
2.21539474163848 -321.784616042567 -56.8121773768126
122.371888716332 144.010451391864 45.4434126003632
-197.666084378184 -74.631130376816 86.1753547806771
-224.112141868623 -178.146610983274 164.711488991363
16.3280998133026 353.039125532653 7.86672923584627
-146.268374372168 216.544482006484 88.5080517963117
-142.433619872541 -299.321304102537 42.2334566052286
-268.883373972498 -174.495543880579 60.2258230358204
-35.8869975800525 -339.724176212996 -10.6950630764396
204.105312750715 -1.98617670026443 -67.6958854600881
89.9915299160434 162.52782660931 38.8765784225386
-268.883373972498 -115.688010341899 105.289520835947
122.703376037567 -159.713148533928 -69.628250621936
27.5604436037617 -339.355611499261 -19.1708009297218
315.140028392653 -141.500834978829 -18.0496071443746
-242.545360322837 -93.346616890715 187.039705766721
186.492877597445 -228.454881184263 79.634920658177
-189.853086161918 -178.146610983274 115.500754654825
6.90412967343665 322.085481388105 -67.7690305064759
103.668776725515 -322.846953638621 -26.7218821919201
-73.6520469481111 226.893585707166 84.692922533935
-200.673705430768 -249.973594252036 58.3946876050631
-165.558784004177 80.1946479840386 44.8174782048213
73.3246595611144 -269.478450633811 85.0001065974388
-175.133472469008 -95.7846350920011 155.398200581819
176.230749468269 92.3282275348356 -60.4085533734121
170.931555102032 277.298263485482 -64.63235584036
-107.037407991856 -224.423866975237 88.3841074548636
-198.971619198734 49.4529524040658 -70.1008112128166
294.189538077567 149.626540834117 -58.5261378462072
156.163364723631 -301.362989917645 -27.6169450540041
-269.764106337946 222.717679362789 -8.59160516951879
-293.689464554086 -139.689516586803 54.5368841626418
-51.2424922333378 307.348474658737 -75.1438657060467
83.8424460578239 -205.207994635983 82.0370510263124
-268.883373972498 -95.7678120473513 152.825846275902
-242.891043747413 -74.6311303768161 118.375029015297
-203.747682302979 -152.070593832475 187.039705766721
-151.707349447049 -305.914911046369 11.5288235315174
-42.2472367588657 350.213158423231 10.9638968755571
